43.020750  -87.352438  52.600000
43.020747  -87.352443  52.600000
43.020745  -87.352445  52.600000
43.020743  -87.352448  52.600000
43.020745  -87.352452  52.600000
43.020745  -87.352457  52.700000
43.020750  -87.352463  52.600000
43.020753  -87.352467  52.900000
43.020758  -87.352477  52.600000
43.020758  -87.352478  52.700000
43.020758  -87.352485  52.900000
43.020763  -87.352490  52.900000
43.020768  -87.352488  52.900000
43.020772  -87.352483  52.800000
43.020773  -87.352477  52.900000
43.020775  -87.352473  52.800000
43.020768  -87.352463  52.600000
43.020767  -87.352457  52.600000
43.020760  -87.352453  52.600000
43.020757  -87.352453  52.600000
43.020752  -87.352453  52.600000
43.020750  -87.352458  52.600000
43.020740  -87.352462  52.600000
43.020730  -87.352463  52.600000
43.020718  -87.352468  52.600000
43.020703  -87.352477  52.600000
43.020692  -87.352485  52.600000
43.020685  -87.352485  52.600000
43.020685  -87.352480  52.600000
43.020685  -87.352482  52.600000
43.020692  -87.352487  52.600000
43.020695  -87.352485  52.600000
43.020702  -87.352480  52.600000
43.020715  -87.352475  52.600000
43.020730  -87.352473  52.600000
43.020735  -87.352475  52.600000
43.020742  -87.352475  52.600000
43.020747  -87.352470  52.500000
43.020753  -87.352468  52.600000
43.020757  -87.352467  52.600000
43.020762  -87.352462  52.600000
43.020763  -87.352463  52.600000
43.020767  -87.352463  52.600000
43.020768  -87.352472  52.600000
43.020780  -87.352487  52.600000
43.020775  -87.352497  52.900000
43.020763  -87.352502  52.900000
43.020753  -87.352503  52.900000
43.020747  -87.352507  52.900000
43.020770  -87.352508  52.900000
43.020827  -87.352480  53.500000
43.020843  -87.352462  53.200000
43.020790  -87.352510  52.900000
43.020740  -87.352498  52.600000
43.020733  -87.352487  52.600000
43.020760  -87.352488  52.900000
43.020777  -87.352492  52.900000
43.020787  -87.352495  52.900000
43.020800  -87.352503  52.900000
43.020813  -87.352508  53.100000
43.020823  -87.352510  53.400000
43.020830  -87.352508  53.300000
43.020838  -87.352505  53.600000
43.020843  -87.352498  53.600000
43.020848  -87.352490  53.600000
43.020848  -87.352490  53.600000
43.020842  -87.352495  53.600000
43.020832  -87.352495  53.200000
43.020820  -87.352502  53.200000
43.020808  -87.352502  53.200000
43.020802  -87.352508  52.900000
43.020792  -87.352520  52.900000
43.020783  -87.352515  52.900000
43.020782  -87.352505  52.900000
43.020782  -87.352502  52.900000
43.020785  -87.352498  52.900000
43.020782  -87.352497  52.900000
43.020785  -87.352485  52.900000
43.020788  -87.352483  52.900000
43.020795  -87.352485  53.100000
43.020805  -87.352495  52.900000
43.020812  -87.352497  53.000000
43.020817  -87.352500  53.200000
43.020818  -87.352498  53.200000
43.020825  -87.352495  53.200000
43.020827  -87.352492  53.300000
43.020815  -87.352493  53.200000
43.020810  -87.352492  53.200000
43.020795  -87.352493  52.900000
43.020778  -87.352495  52.900000
43.020763  -87.352490  52.900000
43.020750  -87.352485  52.900000
43.020737  -87.352487  52.900000
43.020728  -87.352492  52.900000
43.020725  -87.352498  52.900000
43.020723  -87.352500  52.900000
43.020728  -87.352502  52.900000
43.020738  -87.352503  52.900000
43.020750  -87.352503  52.900000
43.020765  -87.352495  52.900000
43.020793  -87.352485  52.900000
43.020813  -87.352480  53.100000
43.020835  -87.352477  53.300000
43.020858  -87.352480  53.500000
43.020887  -87.352488  53.600000
43.020903  -87.352497  53.600000
43.020927  -87.352510  53.600000
43.020947  -87.352513  53.600000
43.020968  -87.352513  53.600000
43.020978  -87.352515  53.200000
43.020988  -87.352513  53.200000
43.020997  -87.352505  52.600000
43.020998  -87.352503  53.000000
43.020995  -87.352507  53.200000
43.020995  -87.352515  53.200000
43.020987  -87.352520  53.200000
43.020960  -87.352522  53.600000
43.020930  -87.352505  53.900000
43.020900  -87.352512  53.700000
43.020890  -87.352520  53.800000
43.020882  -87.352525  53.700000
43.020883  -87.352522  53.600000
43.020883  -87.352517  53.600000
43.020883  -87.352513  53.900000
43.020892  -87.352517  53.600000
43.020900  -87.352515  53.800000
43.020913  -87.352512  53.900000
43.020930  -87.352510  53.600000
43.020953  -87.352507  53.600000
43.020967  -87.352508  53.300000
43.020980  -87.352510  53.200000
43.020988  -87.352512  52.900000
43.020998  -87.352513  52.900000
43.021000  -87.352518  52.700000
43.021000  -87.352523  52.900000
43.020997  -87.352548  53.300000
43.020945  -87.352532  53.600000
43.020938  -87.352518  53.800000
43.020937  -87.352510  53.600000
43.020938  -87.352505  53.600000
43.020947  -87.352508  53.600000
43.020965  -87.352508  53.500000
43.020985  -87.352510  53.200000
43.021003  -87.352515  52.900000
43.021027  -87.352520  52.600000
43.021043  -87.352513  52.900000
43.021053  -87.352510  52.900000
43.021065  -87.352518  52.900000
43.021085  -87.352530  52.900000
43.021097  -87.352525  52.900000
43.021107  -87.352515  53.200000
43.021113  -87.352512  52.900000
43.021120  -87.352510  52.900000
43.021122  -87.352505  52.900000
43.021120  -87.352498  52.900000
43.021122  -87.352492  52.900000
43.021113  -87.352490  52.900000
43.021108  -87.352490  52.900000
43.021103  -87.352493  52.900000
43.021100  -87.352503  52.900000
43.021085  -87.352508  52.900000
43.021073  -87.352513  52.900000
43.021060  -87.352517  52.900000
43.021038  -87.352530  52.900000
43.021018  -87.352543  52.600000
43.021012  -87.352543  52.600000
43.021008  -87.352540  52.900000
43.021005  -87.352537  52.800000
43.021005  -87.352528  52.700000
43.021012  -87.352523  52.700000
43.021020  -87.352515  52.700000
43.021028  -87.352507  52.600000
43.021038  -87.352500  52.700000
43.021053  -87.352500  52.600000
43.021067  -87.352507  52.900000
43.021077  -87.352510  52.900000
43.021092  -87.352513  52.900000
43.021103  -87.352518  52.900000
43.021115  -87.352520  52.900000
43.021125  -87.352520  53.100000
43.021138  -87.352510  53.200000
43.021142  -87.352505  52.900000
43.021138  -87.352502  53.200000
43.021135  -87.352503  52.900000
43.021122  -87.352507  52.900000
43.021112  -87.352512  53.000000
43.021097  -87.352517  52.900000
43.021082  -87.352522  52.900000
43.021057  -87.352527  52.900000
43.021040  -87.352528  52.800000
43.021028  -87.352530  52.600000
43.021018  -87.352528  52.600000
43.021010  -87.352525  52.900000
43.021008  -87.352520  52.900000
43.021007  -87.352520  52.900000
43.021013  -87.352522  52.800000
43.021027  -87.352528  52.600000
43.021043  -87.352528  52.900000
43.021060  -87.352525  52.900000
43.021075  -87.352520  52.900000
43.021095  -87.352515  52.900000
43.021105  -87.352523  52.900000
43.021115  -87.352525  52.900000
43.021128  -87.352525  53.200000
43.021140  -87.352523  52.900000
43.021152  -87.352523  52.900000
43.021153  -87.352522  53.200000
43.021152  -87.352525  53.200000
43.021143  -87.352535  53.200000
43.021137  -87.352533  53.200000
43.021123  -87.352527  52.900000
43.021108  -87.352520  53.200000
43.021083  -87.352515  52.900000
43.021068  -87.352512  52.900000
43.021048  -87.352517  52.600000
43.021027  -87.352522  52.600000
43.021005  -87.352522  52.600000
43.020990  -87.352525  53.200000
43.020978  -87.352535  53.500000
43.020967  -87.352545  53.600000
43.020962  -87.352557  53.600000
43.020965  -87.352555  53.900000
43.020970  -87.352553  53.600000
43.020978  -87.352550  53.500000
43.020988  -87.352528  53.200000
43.020998  -87.352512  53.200000
43.021007  -87.352500  52.900000
43.021018  -87.352492  52.900000
43.021035  -87.352488  52.900000
43.021055  -87.352500  52.900000
43.021075  -87.352510  52.900000
43.021108  -87.352517  53.200000
43.021155  -87.352537  53.200000
43.021173  -87.352528  52.900000
43.021140  -87.352492  52.900000
43.021075  -87.352510  52.800000
43.021002  -87.352552  53.200000
43.020987  -87.352532  53.200000
43.020985  -87.352513  53.200000
43.020993  -87.352510  53.200000
43.021007  -87.352513  52.900000
43.021018  -87.352520  52.600000
43.021030  -87.352527  52.700000
43.021040  -87.352527  52.600000
43.021055  -87.352523  52.900000
43.021073  -87.352518  52.900000
43.021087  -87.352512  52.900000
43.021100  -87.352505  52.900000
43.021115  -87.352505  52.900000
43.021127  -87.352502  52.900000
43.021138  -87.352508  52.900000
43.021148  -87.352512  52.900000
43.021157  -87.352518  53.200000
43.021163  -87.352530  53.200000
43.021167  -87.352533  53.200000
43.021172  -87.352535  53.200000
43.021183  -87.352535  53.200000
43.021192  -87.352527  52.900000
43.021202  -87.352513  52.900000
43.021208  -87.352502  52.900000
43.021210  -87.352490  52.900000
43.021207  -87.352482  52.900000
43.021203  -87.352475  52.900000
43.021193  -87.352482  53.200000
43.021178  -87.352487  52.900000
43.021165  -87.352490  52.900000
43.021153  -87.352495  52.900000
43.021137  -87.352502  52.900000
43.021118  -87.352520  53.200000
43.021102  -87.352537  52.900000
43.021087  -87.352547  52.900000
43.021073  -87.352547  52.900000
43.021057  -87.352548  52.900000
43.021047  -87.352538  52.900000
43.021038  -87.352525  52.900000
43.021032  -87.352517  52.800000
43.021015  -87.352532  52.600000
43.021012  -87.352547  52.700000
43.021013  -87.352547  52.900000
43.021010  -87.352533  52.600000
43.021010  -87.352522  52.900000
43.021018  -87.352520  52.800000
43.021027  -87.352513  52.600000
43.021035  -87.352508  52.600000
43.021043  -87.352507  52.600000
43.021048  -87.352515  52.600000
43.021055  -87.352518  52.700000
43.021062  -87.352518  52.900000
43.021067  -87.352515  52.900000
43.021067  -87.352510  52.900000
43.021070  -87.352508  52.900000
43.021073  -87.352510  52.600000
43.021065  -87.352518  52.900000
43.021055  -87.352518  52.600000
43.021043  -87.352518  52.900000
43.021030  -87.352533  52.600000
43.021013  -87.352547  52.900000
43.020997  -87.352547  53.400000
43.020978  -87.352538  53.600000
43.020963  -87.352523  53.600000
43.020957  -87.352495  53.600000
43.020962  -87.352493  53.600000
43.020977  -87.352503  53.500000
43.020998  -87.352520  53.500000
43.021025  -87.352538  52.800000
43.021033  -87.352533  52.600000
43.021043  -87.352527  52.600000
43.021052  -87.352518  52.900000
43.021063  -87.352515  52.800000
43.021070  -87.352515  52.900000
43.021077  -87.352523  52.900000
43.021082  -87.352528  52.900000
43.021082  -87.352528  52.900000
43.021083  -87.352533  52.900000
43.021082  -87.352525  52.900000
43.021078  -87.352520  52.900000
43.021068  -87.352513  52.900000
43.021062  -87.352508  52.800000
43.021050  -87.352505  52.800000
43.021038  -87.352500  52.600000
43.021022  -87.352495  52.900000
43.021010  -87.352497  53.000000
43.021002  -87.352500  52.900000
43.020992  -87.352507  53.200000
43.020975  -87.352517  53.600000
43.020967  -87.352523  53.600000
43.020957  -87.352525  53.800000
43.020955  -87.352523  53.600000
43.020952  -87.352533  53.900000
43.020963  -87.352545  53.600000
43.020972  -87.352548  53.600000
43.020978  -87.352547  53.600000
43.021002  -87.352538  53.500000
43.021015  -87.352530  53.200000
43.021030  -87.352532  52.600000
43.021042  -87.352523  52.900000
43.021065  -87.352527  52.900000
43.021078  -87.352527  52.900000
43.021090  -87.352520  52.900000
43.021098  -87.352515  52.900000
43.021112  -87.352515  52.900000
43.021117  -87.352513  52.900000
43.021118  -87.352503  52.900000
43.021122  -87.352503  52.900000
43.021125  -87.352493  52.900000
43.021127  -87.352487  52.900000
43.021132  -87.352478  52.900000
43.021130  -87.352475  52.900000
43.021127  -87.352472  52.900000
43.021122  -87.352473  52.900000
43.021105  -87.352478  52.900000
43.021110  -87.352473  52.900000
43.021098  -87.352483  52.900000
43.021087  -87.352490  52.900000
43.021078  -87.352502  52.900000
43.021068  -87.352510  52.900000
43.021055  -87.352518  52.600000
43.021048  -87.352515  52.600000
43.021042  -87.352507  52.600000
43.021037  -87.352495  52.600000
43.021032  -87.352483  52.900000
43.021025  -87.352473  52.900000
43.021027  -87.352470  53.100000
43.021035  -87.352462  52.900000
43.021047  -87.352462  53.200000
43.021062  -87.352473  52.900000
43.021075  -87.352480  52.900000
43.021087  -87.352490  52.800000
43.021107  -87.352500  52.900000
43.021125  -87.352508  52.900000
43.021137  -87.352512  53.100000
43.021155  -87.352522  53.200000
43.021167  -87.352515  53.200000
43.021173  -87.352507  53.000000
43.021177  -87.352497  52.900000
43.021167  -87.352490  52.900000
43.021168  -87.352480  53.200000
43.021158  -87.352475  52.900000
43.021140  -87.352477  52.900000
43.021118  -87.352478  52.900000
43.021107  -87.352500  52.900000
43.021092  -87.352517  52.900000
43.021085  -87.352523  52.900000
43.021080  -87.352532  52.900000
43.021070  -87.352528  52.900000
43.021068  -87.352527  52.900000
43.021070  -87.352522  52.900000
43.021073  -87.352517  52.900000
43.021082  -87.352518  52.900000
43.021090  -87.352512  52.900000
43.021100  -87.352507  52.900000
43.021108  -87.352502  52.900000
43.021123  -87.352498  52.900000
43.021135  -87.352492  52.900000
43.021143  -87.352487  52.900000
43.021157  -87.352477  52.900000
43.021168  -87.352465  53.200000
43.021177  -87.352465  52.900000
43.021188  -87.352475  53.200000
43.021203  -87.352483  52.900000
43.021222  -87.352493  53.200000
43.021240  -87.352500  53.200000
43.021252  -87.352502  53.200000
43.021260  -87.352507  53.200000
43.021267  -87.352505  53.200000
43.021268  -87.352502  53.000000
43.021252  -87.352503  53.000000
43.021243  -87.352503  52.900000
43.021217  -87.352508  52.900000
43.021207  -87.352503  52.900000
43.021195  -87.352507  52.900000
43.021180  -87.352510  52.900000
43.021152  -87.352522  53.200000
43.021135  -87.352517  53.000000
43.021118  -87.352515  52.900000
43.021108  -87.352522  52.900000
43.021117  -87.352502  52.900000
43.021123  -87.352500  53.000000
43.021137  -87.352503  52.900000
43.021153  -87.352503  53.200000
43.021180  -87.352500  52.900000
43.021195  -87.352497  52.900000
43.021253  -87.352473  53.200000
43.021313  -87.352463  53.900000
43.021357  -87.352472  54.400000
43.021370  -87.352482  54.200000
43.021375  -87.352477  54.500000
43.021378  -87.352477  54.500000
43.021383  -87.352463  54.500000
43.021387  -87.352460  54.500000
43.021392  -87.352458  54.800000
43.021395  -87.352453  54.800000
43.021403  -87.352450  54.800000
43.021410  -87.352447  54.800000
43.021417  -87.352442  54.800000
43.021422  -87.352435  54.400000
43.021428  -87.352427  54.800000
43.021437  -87.352422  55.200000
43.021442  -87.352413  55.200000
43.021445  -87.352407  55.200000
43.021448  -87.352392  55.200000
43.021453  -87.352385  55.300000
43.021465  -87.352387  55.200000
43.021480  -87.352400  55.500000
43.021492  -87.352430  55.200000
43.021500  -87.352443  55.300000
43.021508  -87.352442  55.500000
43.021517  -87.352428  55.500000
43.021523  -87.352415  55.500000
43.021522  -87.352408  55.500000
43.021520  -87.352403  55.500000
43.021513  -87.352403  55.500000
43.021502  -87.352402  55.500000
43.021493  -87.352392  55.500000
43.021482  -87.352387  55.200000
43.021475  -87.352383  55.400000
43.021470  -87.352377  55.400000
43.021472  -87.352387  55.200000
43.021483  -87.352400  55.500000
43.021488  -87.352405  55.200000
43.021500  -87.352408  55.500000
43.021517  -87.352413  55.500000
43.021522  -87.352402  55.500000
43.021528  -87.352398  55.500000
43.021517  -87.352373  55.500000
43.021520  -87.352377  55.500000
43.021517  -87.352382  55.500000
43.021515  -87.352400  55.500000
43.021505  -87.352408  55.200000
43.021497  -87.352403  55.200000
43.021478  -87.352407  55.200000
43.021462  -87.352403  55.200000
43.021443  -87.352412  55.200000
43.021425  -87.352443  54.900000
43.021422  -87.352467  54.900000
43.021410  -87.352457  54.900000
43.021417  -87.352450  54.900000
43.021445  -87.352452  54.900000
43.021457  -87.352432  55.200000
43.021472  -87.352427  55.200000
43.021492  -87.352425  55.200000
43.021507  -87.352430  55.300000
43.021523  -87.352427  55.500000
43.021532  -87.352422  55.500000
43.021527  -87.352410  55.500000
43.021518  -87.352400  55.500000
43.021512  -87.352403  55.500000
43.021507  -87.352402  55.500000
43.021512  -87.352400  55.500000
43.021537  -87.352408  55.500000
43.021555  -87.352398  55.800000
43.021570  -87.352405  55.500000
43.021570  -87.352393  55.500000
43.021563  -87.352390  55.500000
43.021555  -87.352385  55.500000
43.021538  -87.352367  55.500000
43.021508  -87.352368  55.500000
43.021493  -87.352372  55.300000
43.021487  -87.352380  55.500000
43.021485  -87.352385  55.200000
43.021493  -87.352397  55.300000
43.021493  -87.352403  55.200000
43.021488  -87.352407  55.200000
43.021482  -87.352407  55.200000
43.021472  -87.352407  55.200000
43.021463  -87.352413  55.200000
43.021447  -87.352417  55.200000
43.021430  -87.352422  55.100000
43.021423  -87.352438  54.900000
43.021417  -87.352452  54.500000
43.021403  -87.352458  54.500000
43.021387  -87.352478  54.500000
43.021377  -87.352483  54.500000
43.021370  -87.352482  54.400000
43.021373  -87.352482  54.500000
43.021375  -87.352470  54.500000
43.021387  -87.352453  54.500000
43.021398  -87.352445  54.700000
43.021410  -87.352433  54.800000
43.021427  -87.352430  54.800000
43.021443  -87.352427  55.200000
43.021458  -87.352432  55.200000
43.021473  -87.352440  55.200000
43.021483  -87.352440  55.200000
43.021493  -87.352435  55.200000
43.021503  -87.352435  55.200000
43.021505  -87.352440  55.200000
43.021497  -87.352437  55.200000
43.021488  -87.352447  55.200000
43.021483  -87.352448  55.200000
43.021482  -87.352445  55.200000
43.021473  -87.352445  54.400000
43.021463  -87.352440  55.200000
43.021453  -87.352438  55.200000
43.021448  -87.352432  55.200000
43.021445  -87.352427  54.900000
43.021453  -87.352415  55.200000
43.021452  -87.352402  55.200000
43.021453  -87.352392  55.200000
43.021460  -87.352388  55.200000
43.021472  -87.352383  55.500000
43.021480  -87.352387  55.200000
43.021490  -87.352390  55.500000
43.021502  -87.352397  55.500000
43.021518  -87.352410  55.500000
43.021527  -87.352412  55.500000
43.021537  -87.352403  55.500000
43.021545  -87.352397  55.500000
43.021567  -87.352385  55.500000
43.021572  -87.352372  55.500000
43.021573  -87.352362  55.500000
43.021572  -87.352355  55.500000
43.021558  -87.352358  55.500000
43.021552  -87.352363  55.500000
43.021547  -87.352370  55.500000
43.021540  -87.352375  55.500000
43.021530  -87.352385  55.500000
43.021520  -87.352392  55.500000
43.021507  -87.352397  55.500000
43.021493  -87.352407  55.200000
43.021473  -87.352415  55.200000
43.021458  -87.352430  55.200000
43.021445  -87.352443  54.900000
43.021432  -87.352453  54.900000
43.021422  -87.352457  54.600000
43.021412  -87.352465  54.500000
43.021408  -87.352463  54.800000
43.021408  -87.352455  54.800000
43.021423  -87.352457  54.800000
43.021435  -87.352452  54.800000
43.021448  -87.352433  55.100000
43.021458  -87.352425  55.200000
43.021467  -87.352408  55.200000
43.021477  -87.352397  55.200000
43.021483  -87.352388  55.300000
43.021492  -87.352378  55.500000
43.021510  -87.352362  55.500000
43.021522  -87.352350  55.500000
43.021532  -87.352342  55.500000
43.021538  -87.352335  55.500000
43.021550  -87.352335  55.500000
43.021558  -87.352342  55.700000
43.021565  -87.352352  55.800000
43.021573  -87.352355  55.500000
43.021587  -87.352357  55.800000
43.021595  -87.352352  55.800000
43.021593  -87.352350  55.800000
43.021593  -87.352342  55.800000
43.021595  -87.352325  55.800000
43.021595  -87.352320  55.800000
43.021597  -87.352322  55.800000
43.021600  -87.352323  55.800000
43.021600  -87.352328  55.800000
43.021598  -87.352333  55.800000
43.021595  -87.352340  55.800000
43.021588  -87.352345  55.500000
43.021577  -87.352350  55.500000
43.021565  -87.352357  55.800000
43.021565  -87.352362  55.500000
43.021558  -87.352367  55.500000
43.021557  -87.352367  55.500000
43.021562  -87.352360  55.500000
43.021572  -87.352348  55.500000
43.021578  -87.352333  55.800000
43.021598  -87.352325  56.100000
43.021618  -87.352327  55.800000
43.021618  -87.352343  55.900000
43.021608  -87.352332  55.900000
43.021587  -87.352305  55.800000
43.021583  -87.352308  55.900000
43.021583  -87.352312  55.800000
43.021592  -87.352342  55.700000
43.021568  -87.352370  55.700000
43.021560  -87.352375  55.600000
43.021550  -87.352372  55.500000
43.021545  -87.352372  55.500000
43.021533  -87.352367  55.500000
43.021525  -87.352372  55.700000
43.021513  -87.352372  55.500000
43.021505  -87.352382  55.500000
43.021492  -87.352395  55.400000
43.021480  -87.352407  55.300000
43.021475  -87.352415  55.300000
43.021462  -87.352430  55.300000
43.021448  -87.352437  55.200000
43.021452  -87.352430  55.200000
43.021460  -87.352435  55.200000
43.021465  -87.352432  55.300000
43.021470  -87.352418  55.300000
43.021465  -87.352415  55.300000
43.021460  -87.352408  55.300000
43.021462  -87.352397  55.300000
43.021468  -87.352378  55.400000
43.021468  -87.352375  55.500000
43.021473  -87.352372  55.400000
43.021478  -87.352367  55.500000
43.021483  -87.352360  55.400000
43.021487  -87.352358  55.500000
43.021483  -87.352358  55.500000
43.021482  -87.352353  55.500000
43.021482  -87.352350  55.500000
43.021485  -87.352352  55.500000
43.021492  -87.352357  55.500000
43.021498  -87.352365  55.500000
43.021503  -87.352377  55.400000
43.021507  -87.352378  55.500000
43.021510  -87.352385  55.500000
43.021510  -87.352393  55.500000
43.021507  -87.352402  55.400000
43.021500  -87.352400  55.400000
43.021490  -87.352397  55.300000
43.021478  -87.352398  55.200000
43.021462  -87.352395  55.300000
43.021465  -87.352398  55.200000
43.021468  -87.352427  55.200000
43.021443  -87.352445  55.100000
43.021443  -87.352433  55.200000
43.021445  -87.352420  55.000000
43.021443  -87.352402  55.200000
43.021445  -87.352382  55.200000
43.021452  -87.352365  55.400000
43.021455  -87.352353  55.300000
43.021457  -87.352348  55.400000
43.021463  -87.352367  55.500000
43.021468  -87.352392  55.400000
43.021472  -87.352403  55.400000
43.021477  -87.352402  55.400000
43.021473  -87.352403  55.400000
43.021495  -87.352410  55.300000
43.021508  -87.352427  55.300000
43.021508  -87.352435  55.200000
43.021507  -87.352430  55.200000
43.021498  -87.352418  55.300000
43.021485  -87.352400  55.400000
43.021475  -87.352367  55.500000
43.021468  -87.352355  55.500000
43.021457  -87.352355  55.400000
43.021468  -87.352370  55.400000
43.021477  -87.352382  55.400000
43.021477  -87.352387  55.300000
43.021477  -87.352395  55.300000
43.021477  -87.352398  55.200000
43.021472  -87.352398  55.300000
43.021470  -87.352397  55.300000
43.021467  -87.352390  55.300000
43.021460  -87.352387  55.300000
43.021455  -87.352378  55.300000
43.021452  -87.352375  55.300000
43.021463  -87.352373  55.300000
43.021448  -87.352368  55.300000
43.021457  -87.352370  55.300000
43.021455  -87.352372  55.300000
43.021445  -87.352385  55.300000
43.021438  -87.352418  55.200000
43.021443  -87.352433  55.100000
43.021452  -87.352393  55.300000
43.021462  -87.352365  55.300000
43.021472  -87.352345  55.500000
43.021478  -87.352332  55.500000
43.021485  -87.352320  55.500000
43.021492  -87.352305  55.500000
43.021498  -87.352298  55.500000
43.021502  -87.352297  55.500000
43.021510  -87.352297  55.700000
43.021520  -87.352305  55.500000
43.021532  -87.352308  55.700000
43.021545  -87.352313  55.600000
43.021557  -87.352315  55.700000
43.021567  -87.352320  55.800000
43.021575  -87.352322  55.700000
43.021580  -87.352322  55.900000
43.021583  -87.352325  55.700000
43.021582  -87.352328  55.800000
43.021588  -87.352328  55.700000
43.021585  -87.352332  55.700000
43.021573  -87.352335  55.700000
43.021555  -87.352340  55.700000
43.021548  -87.352343  55.700000
43.021552  -87.352352  55.500000
43.021530  -87.352360  55.500000
43.021523  -87.352367  55.500000
43.021512  -87.352370  55.500000
43.021505  -87.352373  55.400000
43.021495  -87.352372  55.400000
43.021498  -87.352378  55.300000
43.021493  -87.352380  55.300000
43.021492  -87.352390  55.300000
43.021490  -87.352395  55.300000
43.021490  -87.352400  55.200000
43.021490  -87.352397  55.200000
43.021488  -87.352395  55.200000
43.021487  -87.352390  55.300000
43.021478  -87.352395  55.200000
43.021467  -87.352395  55.200000
43.021458  -87.352400  55.200000
43.021448  -87.352405  55.000000
43.021435  -87.352408  55.000000
43.021423  -87.352408  55.000000
43.021412  -87.352412  54.900000
43.021407  -87.352413  54.900000
43.021402  -87.352415  54.800000
43.021402  -87.352408  54.800000
43.021403  -87.352402  54.900000
43.021407  -87.352395  55.000000
43.021410  -87.352385  55.000000
43.021413  -87.352378  55.000000
43.021418  -87.352372  55.000000
43.021432  -87.352368  55.000000
43.021427  -87.352372  55.200000
43.021435  -87.352378  55.100000
43.021437  -87.352387  55.100000
43.021437  -87.352390  55.100000
43.021442  -87.352392  55.200000
43.021438  -87.352395  55.200000
43.021437  -87.352397  55.000000
43.021443  -87.352400  55.000000
43.021442  -87.352403  55.000000
43.021443  -87.352397  55.000000
43.021442  -87.352392  55.000000
43.021440  -87.352383  55.100000
43.021433  -87.352373  55.000000
43.021430  -87.352373  55.100000
43.021423  -87.352370  55.000000
43.021423  -87.352370  55.000000
43.021420  -87.352372  55.000000
43.021413  -87.352375  55.000000
43.021402  -87.352378  55.000000
43.021392  -87.352383  54.800000
43.021377  -87.352390  54.800000
43.021367  -87.352397  54.700000
43.021358  -87.352402  54.700000
43.021353  -87.352407  54.600000
43.021358  -87.352423  54.400000
43.021362  -87.352432  54.500000
43.021358  -87.352438  54.500000
43.021353  -87.352435  54.400000
43.021350  -87.352428  54.500000
43.021348  -87.352423  54.300000
43.021348  -87.352418  54.400000
43.021345  -87.352413  54.500000
43.021340  -87.352405  54.700000
43.021338  -87.352400  54.700000
43.021338  -87.352400  54.500000
43.021337  -87.352402  54.500000
43.021340  -87.352410  54.500000
43.021345  -87.352413  54.700000
43.021342  -87.352415  54.500000
43.021335  -87.352402  54.500000
43.021320  -87.352422  54.600000
43.021335  -87.352435  54.300000
43.021337  -87.352427  54.500000
43.021312  -87.352247  55.000000
43.021252  -87.351712  54.800000
43.021223  -87.351460  54.800000
43.021195  -87.351288  54.800000
43.021172  -87.351147  54.500000
43.021130  -87.350925  54.200000
43.021103  -87.350800  54.100000
43.021073  -87.350673  53.900000
43.021052  -87.350562  53.300000
43.021035  -87.350462  53.100000
43.021028  -87.350393  53.100000
43.021023  -87.350357  53.400000
43.021022  -87.350318  53.800000
43.021020  -87.350287  53.900000
43.021020  -87.350270  54.300000
43.021023  -87.350258  54.200000
43.021018  -87.350162  54.100000
43.020903  -87.350038  54.300000
43.020770  -87.350082  54.200000
43.020685  -87.350255  54.900000
43.020702  -87.350535  54.900000
43.020688  -87.350932  53.800000
43.020628  -87.351253  53.300000
43.020567  -87.351700  52.900000
43.020518  -87.352112  52.500000
43.020438  -87.352665  57.100000
43.020382  -87.353100  64.400000
43.020317  -87.353572  69.100000
43.020250  -87.354015  71.100000
43.020147  -87.354835  75.900000
43.020060  -87.355477  77.700000
43.019967  -87.356190  79.100000
43.019857  -87.356980  80.700000
43.019718  -87.358047  81.700000
43.019685  -87.358908  82.200000
43.019725  -87.359832  82.700000
43.019780  -87.360993  83.100000
43.019838  -87.362345  83.800000
43.019907  -87.363480  84.000000
43.020003  -87.364557  84.500000
43.020062  -87.365685  85.000000
43.020527  -87.365115  84.400000
43.020532  -87.364313  83.900000
43.020527  -87.363568  83.600000
43.020510  -87.362823  83.200000
43.020450  -87.361800  82.900000
43.020397  -87.361055  82.600000
43.020352  -87.360308  82.600000
43.020283  -87.359568  82.100000
43.020213  -87.358537  81.600000
43.020143  -87.357798  81.000000
43.020087  -87.357057  80.400000
43.020027  -87.356253  79.200000
43.019933  -87.355247  77.500000
43.019917  -87.354370  74.800000
43.019710  -87.353685  72.000000
43.019552  -87.353238  71.000000
43.019462  -87.352718  69.700000
43.019518  -87.352320  67.600000
43.019635  -87.352055  64.300000
43.019825  -87.351920  63.000000
43.020147  -87.351838  55.900000
43.020392  -87.351877  53.700000
43.020575  -87.351967  51.100000
43.020738  -87.352095  51.400000
43.021032  -87.352252  52.700000
43.021283  -87.352358  54.400000
43.021550  -87.352445  55.200000
43.021815  -87.352528  56.100000
43.022085  -87.352623  56.500000
43.022248  -87.352638  56.800000
43.022382  -87.352573  57.100000
43.022460  -87.352478  57.100000
43.022560  -87.352357  57.100000
43.022643  -87.352313  57.200000
43.022710  -87.352305  57.400000
43.022743  -87.352303  57.400000
43.022677  -87.352263  57.100000
43.022597  -87.352218  57.100000
43.022505  -87.352173  56.800000
43.022425  -87.352137  56.800000
43.022240  -87.352083  56.800000
43.022073  -87.352050  56.200000
43.021910  -87.352032  55.900000
43.021717  -87.352025  55.800000
43.021390  -87.352052  54.900000
43.021088  -87.352067  54.200000
43.020770  -87.352010  52.000000
43.020560  -87.351968  51.300000
43.020410  -87.351955  53.600000
43.020397  -87.351955  53.900000
43.020410  -87.351967  53.600000
43.020425  -87.351987  53.600000
43.020442  -87.351995  53.200000
43.020452  -87.351998  53.200000
43.020462  -87.352000  53.200000
43.020472  -87.351997  53.200000
43.020483  -87.352000  53.200000
43.020487  -87.352002  53.100000
43.020490  -87.351992  52.900000
43.020500  -87.351977  52.900000
43.020507  -87.351962  52.900000
43.020507  -87.351947  52.700000
43.020505  -87.351933  52.600000
43.020500  -87.351920  52.900000
43.020492  -87.351897  52.900000
43.020483  -87.351883  52.900000
43.020475  -87.351868  52.900000
43.020472  -87.351853  53.200000
43.020468  -87.351837  53.200000
43.020465  -87.351823  53.200000
43.020463  -87.351815  53.200000
43.020460  -87.351813  53.100000
43.020448  -87.351830  53.200000
43.020450  -87.351822  53.200000
43.020452  -87.351808  53.100000
43.020458  -87.351800  53.200000
43.020465  -87.351795  53.200000
43.020468  -87.351798  53.200000
43.020473  -87.351795  53.200000
43.020477  -87.351797  53.200000
43.020473  -87.351792  53.200000
43.020468  -87.351802  53.200000
43.020465  -87.351808  53.000000
43.020458  -87.351825  53.200000
43.020443  -87.351847  53.200000
43.020432  -87.351862  53.400000
43.020425  -87.351880  53.400000
43.020415  -87.351908  53.500000
43.020410  -87.351932  53.600000
43.020418  -87.351943  53.600000
43.020413  -87.351963  53.600000
43.020420  -87.351992  53.600000
43.020432  -87.352013  53.400000
43.020435  -87.352038  53.300000
43.020448  -87.352048  53.200000
43.020455  -87.352057  53.200000
43.020460  -87.352075  53.200000
43.020467  -87.352077  53.200000
43.020463  -87.352093  53.100000
43.020462  -87.352095  53.200000
43.020458  -87.352082  53.100000
43.020460  -87.352068  52.900000
43.020462  -87.352040  53.200000
43.020450  -87.352020  53.200000
43.020427  -87.352017  53.200000
43.020438  -87.351972  53.600000
43.020430  -87.351958  53.600000
43.020422  -87.351945  53.600000
43.020428  -87.351907  53.600000
43.020435  -87.351883  53.600000
43.020440  -87.351857  53.200000
43.020447  -87.351838  53.200000
43.020448  -87.351823  53.200000
43.020450  -87.351812  53.200000
43.020450  -87.351810  53.200000
43.020448  -87.351815  53.200000
43.020448  -87.351817  53.200000
43.020448  -87.351818  53.200000
43.020447  -87.351825  53.200000
43.020447  -87.351833  53.200000
43.020442  -87.351845  53.200000
43.020438  -87.351858  53.200000
43.020437  -87.351877  53.200000
43.020430  -87.351892  53.200000
43.020422  -87.351915  53.200000
43.020418  -87.351928  53.400000
43.020417  -87.351943  53.400000
43.020413  -87.351965  53.600000
43.020412  -87.351993  53.600000
43.020418  -87.352012  53.600000
43.020418  -87.352030  53.500000
43.020418  -87.352047  53.300000
43.020422  -87.352062  53.200000
43.020425  -87.352072  53.200000
43.020427  -87.352090  53.200000
43.020428  -87.352113  53.200000
43.020442  -87.352133  51.600000
43.020443  -87.352137  53.000000
43.020447  -87.352143  53.200000
43.020437  -87.352145  53.200000
43.020447  -87.352152  53.200000
43.020435  -87.352152  53.200000
43.020437  -87.352152  53.200000
43.020435  -87.352148  53.200000
43.020442  -87.352137  53.200000
43.020443  -87.352125  52.900000
43.020442  -87.352110  52.900000
43.020438  -87.352103  52.800000
43.020435  -87.352078  52.900000
43.020432  -87.352065  52.600000
43.020430  -87.352045  52.900000
43.020428  -87.352027  53.600000
43.020427  -87.352002  53.600000
43.020420  -87.351982  53.600000
43.020422  -87.351955  53.800000
43.020418  -87.351935  53.600000
43.020422  -87.351910  53.600000
43.020428  -87.351890  53.600000
43.020432  -87.351873  53.600000
43.020435  -87.351860  53.600000
43.020445  -87.351842  53.200000
43.020450  -87.351830  53.200000
43.020452  -87.351815  53.200000
43.020457  -87.351802  53.200000
43.020467  -87.351780  53.200000
43.020465  -87.351767  53.200000
43.020465  -87.351757  53.200000
43.020472  -87.351752  53.200000
43.020473  -87.351740  53.200000
43.020472  -87.351728  53.200000
43.020465  -87.351722  53.200000
43.020463  -87.351712  53.200000
43.020460  -87.351703  53.200000
43.020457  -87.351693  53.200000
43.020460  -87.351682  53.600000
43.020460  -87.351677  53.600000
43.020460  -87.351673  53.600000
43.020460  -87.351667  53.600000
43.020458  -87.351667  53.600000
43.020455  -87.351665  53.600000
43.020457  -87.351667  53.600000
43.020457  -87.351667  53.600000
43.020458  -87.351672  53.600000
43.020457  -87.351685  53.500000
43.020452  -87.351700  53.200000
43.020452  -87.351708  53.200000
43.020445  -87.351725  53.200000
43.020437  -87.351742  53.200000
43.020428  -87.351768  53.200000
43.020418  -87.351793  53.200000
43.020408  -87.351818  53.200000
43.020407  -87.351838  53.400000
43.020398  -87.351872  53.500000
43.020397  -87.351893  53.700000
43.020393  -87.351925  53.600000
43.020395  -87.351953  53.700000
43.020395  -87.351982  53.800000
43.020398  -87.352003  53.600000
43.020405  -87.352023  53.600000
43.020412  -87.352045  53.600000
43.020422  -87.352065  53.200000
43.020423  -87.352077  53.200000
43.020430  -87.352088  53.200000
43.020433  -87.352115  52.600000
43.020435  -87.352133  53.500000
43.020427  -87.352130  53.500000
43.020410  -87.352078  53.900000
43.020403  -87.351998  53.900000
43.020420  -87.351883  53.600000
43.020423  -87.351842  53.200000
43.020440  -87.351818  53.200000
43.020450  -87.351808  53.200000
43.020455  -87.351795  53.200000
43.020458  -87.351790  53.200000
43.020460  -87.351783  53.200000
43.020457  -87.351782  53.200000
43.020448  -87.351777  53.200000
43.020440  -87.351778  53.200000
43.020435  -87.351782  53.200000
43.020432  -87.351783  53.200000
43.020430  -87.351785  53.200000
43.020422  -87.351797  53.200000
43.020413  -87.351810  53.200000
43.020405  -87.351828  53.500000
43.020392  -87.351858  53.600000
43.020383  -87.351878  53.600000
43.020385  -87.351902  53.700000
43.020388  -87.351918  53.600000
43.020392  -87.351952  53.600000
43.020398  -87.351963  53.600000
43.020402  -87.351978  53.700000
43.020407  -87.351993  53.600000
43.020405  -87.352022  53.600000
43.020412  -87.352042  53.300000
43.020412  -87.352052  53.200000
43.020417  -87.352065  53.500000
43.020418  -87.352083  53.300000
43.020418  -87.352098  53.500000
43.020427  -87.352118  53.500000
43.020432  -87.352140  53.600000
43.020430  -87.352165  53.300000
43.020428  -87.352178  53.500000
43.020428  -87.352192  53.200000
43.020428  -87.352200  53.600000
43.020412  -87.352223  53.500000
43.020408  -87.352232  53.500000
43.020410  -87.352237  53.200000
43.020408  -87.352238  53.500000
43.020408  -87.352233  53.200000
43.020410  -87.352223  53.200000
43.020413  -87.352213  53.500000
43.020412  -87.352203  53.600000
43.020410  -87.352180  53.500000
43.020410  -87.352160  53.500000
43.020407  -87.352133  53.600000
43.020405  -87.352112  53.700000
43.020398  -87.352077  53.900000
43.020398  -87.352052  53.900000
43.020397  -87.352027  53.900000
43.020397  -87.352005  53.900000
43.020398  -87.351978  53.900000
43.020400  -87.351957  53.600000
43.020400  -87.351937  53.600000
43.020405  -87.351917  53.600000
43.020408  -87.351888  53.600000
43.020413  -87.351868  53.300000
43.020417  -87.351848  53.200000
43.020422  -87.351825  53.200000
43.020423  -87.351802  53.200000
43.020427  -87.351785  53.200000
43.020430  -87.351772  53.200000
43.020427  -87.351748  53.200000
43.020430  -87.351732  53.200000
43.020437  -87.351727  53.200000
43.020440  -87.351720  53.200000
43.020442  -87.351710  53.200000
43.020445  -87.351707  53.200000
43.020440  -87.351710  53.200000
43.020430  -87.351705  53.200000
43.020422  -87.351705  53.200000
43.020418  -87.351718  53.200000
43.020417  -87.351735  53.200000
43.020410  -87.351750  53.200000
43.020407  -87.351765  53.400000
43.020393  -87.351795  53.200000
43.020392  -87.351822  53.400000
43.020385  -87.351857  53.600000
43.020392  -87.351902  53.800000
43.020390  -87.351978  53.900000
43.020390  -87.351997  53.800000
43.020392  -87.352023  53.600000
43.020395  -87.352047  53.600000
43.020402  -87.352083  53.600000
43.020402  -87.352100  53.600000
43.020400  -87.352123  53.600000
43.020397  -87.352138  53.600000
43.020400  -87.352163  53.600000
43.020407  -87.352190  53.500000
43.020405  -87.352198  53.600000
43.020402  -87.352208  53.500000
43.020402  -87.352218  53.300000
43.020400  -87.352227  53.200000
43.020383  -87.352243  53.200000
43.020378  -87.352252  53.200000
43.020380  -87.352247  53.200000
43.020375  -87.352243  53.200000
43.020377  -87.352230  53.200000
43.020378  -87.352213  53.200000
43.020373  -87.352182  53.600000
43.020372  -87.352152  53.600000
43.020373  -87.352125  53.600000
43.020375  -87.352098  53.900000
43.020387  -87.352062  53.900000
43.020393  -87.352032  53.900000
43.020388  -87.352017  53.900000
43.020383  -87.352002  53.900000
43.020397  -87.351968  53.600000
43.020402  -87.351947  53.600000
43.020395  -87.351925  53.600000
43.020407  -87.351897  53.600000
43.020408  -87.351862  53.300000
43.020408  -87.351833  53.200000
43.020410  -87.351803  53.200000
43.020415  -87.351773  53.200000
43.020412  -87.351742  53.600000
43.020408  -87.351720  53.600000
43.020408  -87.351695  53.600000
43.020410  -87.351675  53.900000
43.020412  -87.351650  53.600000
43.020410  -87.351637  53.600000
43.020412  -87.351613  53.600000
43.020413  -87.351605  53.800000
43.020403  -87.351607  53.900000
43.020405  -87.351610  53.900000
43.020410  -87.351608  53.700000
43.020410  -87.351610  53.600000
43.020407  -87.351628  53.800000
43.020407  -87.351642  53.600000
43.020405  -87.351662  53.700000
43.020398  -87.351683  53.600000
43.020390  -87.351717  53.600000
43.020382  -87.351748  53.600000
43.020375  -87.351780  53.300000
43.020377  -87.351810  53.200000
43.020375  -87.351855  53.600000
43.020377  -87.351887  53.900000
43.020380  -87.351922  53.900000
43.020390  -87.351948  53.900000
43.020392  -87.351983  53.900000
43.020393  -87.352005  53.900000
43.020392  -87.352028  53.900000
43.020392  -87.352053  53.900000
43.020388  -87.352090  53.900000
43.020385  -87.352113  53.600000
43.020380  -87.352140  53.600000
43.020375  -87.352170  53.600000
43.020373  -87.352202  53.200000
43.020372  -87.352225  53.200000
43.020373  -87.352245  53.200000
43.020367  -87.352252  53.200000
43.020370  -87.352272  53.200000
43.020377  -87.352282  53.200000
43.020382  -87.352292  53.200000
43.020380  -87.352300  53.200000
43.020393  -87.352283  53.200000
43.020400  -87.352263  53.200000
43.020403  -87.352242  53.200000
43.020402  -87.352217  53.200000
43.020395  -87.352177  53.500000
43.020388  -87.352147  53.600000
43.020375  -87.352058  53.900000
43.020385  -87.351972  53.900000
43.020417  -87.351858  53.600000
43.020413  -87.351788  53.200000
43.020405  -87.351720  53.600000
43.020398  -87.351700  53.700000
43.020395  -87.351677  53.600000
43.020402  -87.351667  53.600000
43.020410  -87.351667  53.600000
43.020417  -87.351672  53.600000
43.020422  -87.351683  53.600000
43.020420  -87.351703  53.600000
43.020410  -87.351727  53.200000
43.020398  -87.351748  53.400000
43.020380  -87.351770  53.200000
43.020370  -87.351797  53.200000
43.020365  -87.351833  53.200000
43.020363  -87.351867  53.600000
43.020367  -87.351910  53.700000
43.020367  -87.351945  53.900000
43.020375  -87.351978  53.900000
43.020380  -87.352003  53.900000
43.020387  -87.352035  53.600000
43.020390  -87.352062  53.700000
43.020395  -87.352083  53.600000
43.020398  -87.352100  53.600000
43.020400  -87.352122  53.600000
43.020397  -87.352135  53.600000
43.020393  -87.352152  53.600000
43.020392  -87.352167  53.500000
43.020392  -87.352185  53.600000
43.020388  -87.352200  53.500000
43.020380  -87.352213  53.200000
43.020373  -87.352230  53.200000
43.020368  -87.352247  53.200000
43.020365  -87.352257  53.200000
43.020365  -87.352270  53.200000
43.020370  -87.352275  53.200000
43.020378  -87.352270  53.200000
43.020380  -87.352247  53.200000
43.020378  -87.352197  53.200000
43.020382  -87.352162  53.200000
43.020387  -87.352117  53.600000
43.020388  -87.352080  53.800000
43.020388  -87.352043  53.900000
43.020387  -87.352003  53.900000
43.020382  -87.351945  53.900000
43.020373  -87.351893  53.900000
43.020375  -87.351857  53.600000
43.020378  -87.351825  53.200000
43.020378  -87.351808  53.200000
43.020388  -87.351792  53.200000
43.020390  -87.351787  53.200000
43.020392  -87.351787  53.200000
43.020397  -87.351782  53.200000
43.020395  -87.351783  53.200000
43.020388  -87.351795  53.200000
43.020383  -87.351808  53.200000
43.020363  -87.351877  53.600000
43.020358  -87.351938  53.900000
43.020368  -87.351995  53.900000
43.020382  -87.352043  53.900000
43.020393  -87.352100  53.600000
43.020395  -87.352135  53.600000
43.020392  -87.352165  53.200000
43.020382  -87.352190  53.300000
43.020368  -87.352218  53.200000
43.020368  -87.352225  53.200000
43.020365  -87.352237  53.200000
43.020368  -87.352248  53.200000
43.020360  -87.352265  53.200000
43.020370  -87.352263  53.200000
43.020377  -87.352253  53.200000
43.020380  -87.352237  53.200000
43.020378  -87.352208  53.300000
43.020373  -87.352193  53.600000
43.020368  -87.352177  53.600000
43.020365  -87.352148  53.600000
43.020360  -87.352108  53.900000
43.020357  -87.352082  53.900000
43.020360  -87.352052  53.900000
43.020360  -87.352020  53.900000
43.020365  -87.351988  53.900000
43.020367  -87.351960  53.600000
43.020373  -87.351938  53.900000
43.020377  -87.351915  53.600000
43.020383  -87.351885  53.600000
43.020385  -87.351868  53.300000
43.020388  -87.351857  53.500000
43.020388  -87.351845  53.200000
43.020390  -87.351833  53.200000
43.020385  -87.351828  53.200000
43.020377  -87.351830  53.200000
43.020368  -87.351828  53.200000
43.020367  -87.351827  53.200000
43.020365  -87.351833  53.200000
43.020367  -87.351838  53.200000
43.020367  -87.351853  53.200000
43.020372  -87.351877  53.500000
43.020375  -87.351898  53.900000
43.020378  -87.351925  53.900000
43.020378  -87.351955  53.900000
43.020377  -87.351995  53.900000
43.020373  -87.352027  53.900000
43.020375  -87.352052  53.900000
43.020372  -87.352082  53.900000
43.020365  -87.352115  53.900000
43.020365  -87.352138  53.600000
43.020365  -87.352163  53.600000
43.020365  -87.352190  53.300000
43.020370  -87.352218  53.200000
43.020373  -87.352238  53.200000
43.020375  -87.352258  53.200000
43.020377  -87.352275  53.200000
43.020373  -87.352295  53.200000
43.020373  -87.352302  53.200000
43.020373  -87.352298  53.200000
43.020373  -87.352288  53.200000
43.020365  -87.352277  53.200000
43.020368  -87.352255  53.200000
43.020367  -87.352240  53.200000
43.020365  -87.352215  53.200000
43.020350  -87.352205  53.600000
43.020355  -87.352165  53.700000
43.020358  -87.352122  53.900000
43.020365  -87.352087  54.000000
43.020357  -87.352057  53.900000
43.020360  -87.352033  53.900000
43.020365  -87.352008  53.900000
43.020375  -87.351982  53.900000
43.020385  -87.351943  53.800000
43.020390  -87.351923  53.700000
43.020393  -87.351902  53.600000
43.020397  -87.351888  53.600000
43.020395  -87.351873  53.400000
43.020392  -87.351867  53.600000
43.020385  -87.351862  53.200000
43.020382  -87.351855  53.200000
43.020375  -87.351845  53.200000
43.020375  -87.351835  53.200000
43.020375  -87.351827  53.200000
43.020380  -87.351818  53.200000
43.020385  -87.351812  53.200000
43.020390  -87.351807  53.200000
43.020397  -87.351800  53.200000
43.020402  -87.351792  53.200000
43.020405  -87.351787  53.200000
43.020398  -87.351788  53.200000
43.020397  -87.351783  53.200000
43.020397  -87.351775  53.200000
43.020398  -87.351765  53.200000
43.020395  -87.351757  53.500000
43.020395  -87.351748  53.600000
43.020392  -87.351733  53.600000
43.020397  -87.351700  53.800000
43.020407  -87.351667  53.700000
43.020400  -87.351658  53.600000
43.020393  -87.351695  53.600000
43.020368  -87.351838  53.200000
43.020353  -87.351995  54.000000
43.020370  -87.352103  53.900000
43.020372  -87.352130  53.600000
43.020382  -87.352167  53.600000
43.020383  -87.352192  53.500000
43.020383  -87.352208  53.200000
43.020383  -87.352225  53.200000
43.020380  -87.352247  53.200000
43.020377  -87.352260  53.200000
43.020377  -87.352268  53.200000
43.020378  -87.352275  53.200000
43.020368  -87.352287  53.200000
43.020362  -87.352283  53.200000
43.020363  -87.352262  53.200000
43.020367  -87.352225  53.200000
43.020367  -87.352182  53.600000
43.020355  -87.352163  53.600000
43.020357  -87.352137  53.900000
43.020348  -87.352123  53.900000
43.020358  -87.352088  53.900000
43.020365  -87.352058  53.900000
43.020372  -87.352035  53.900000
43.020363  -87.352022  53.900000
43.020370  -87.351988  53.900000
43.020373  -87.351970  53.600000
43.020377  -87.351952  53.600000
43.020377  -87.351932  53.600000
43.020380  -87.351905  53.600000
43.020378  -87.351890  53.300000
43.020378  -87.351872  53.200000
43.020378  -87.351852  53.200000
43.020387  -87.351823  53.200000
43.020383  -87.351813  53.200000
43.020390  -87.351797  53.200000
43.020400  -87.351783  53.200000
43.020407  -87.351775  53.200000
43.020410  -87.351773  53.200000
43.020410  -87.351780  53.200000
43.020410  -87.351787  53.200000
43.020405  -87.351807  53.200000
43.020400  -87.351818  53.200000
43.020393  -87.351845  53.500000
43.020383  -87.351870  53.600000
43.020370  -87.351917  53.900000
43.020367  -87.351950  54.200000
43.020363  -87.351992  54.000000
43.020367  -87.352032  54.200000
43.020368  -87.352087  53.900000
43.020373  -87.352130  53.600000
43.020378  -87.352170  53.600000
43.020377  -87.352202  53.500000
43.020378  -87.352237  53.200000
43.020393  -87.352265  53.200000
43.020400  -87.352288  53.200000
43.020405  -87.352317  53.500000
43.020412  -87.352353  53.900000
43.020422  -87.352380  53.900000
43.020428  -87.352400  53.900000
43.020417  -87.352420  54.200000
43.020392  -87.352427  54.400000
43.020385  -87.352387  54.200000
43.020377  -87.352333  53.400000
43.020370  -87.352270  53.200000
43.020360  -87.352235  53.200000
43.020360  -87.352222  53.500000
43.020358  -87.352208  53.600000
43.020358  -87.352203  53.600000
43.020367  -87.352187  53.600000
43.020382  -87.352167  53.600000
43.020387  -87.352155  53.600000
43.020388  -87.352143  53.600000
43.020383  -87.352132  53.600000
43.020382  -87.352128  53.900000
43.020377  -87.352112  53.900000
43.020368  -87.352092  54.000000
43.020360  -87.352065  54.200000
43.020358  -87.352047  54.200000
43.020353  -87.352028  54.200000
43.020343  -87.352023  54.200000
43.020342  -87.352005  54.000000
43.020352  -87.351990  53.900000
43.020375  -87.351973  53.900000
43.020388  -87.351965  53.800000
43.020408  -87.351963  53.600000
43.020407  -87.351965  53.600000
43.020410  -87.351967  53.600000
43.020403  -87.351975  53.900000
43.020397  -87.352000  53.900000
43.020390  -87.352023  53.900000
43.020382  -87.352047  53.900000
43.020373  -87.352065  53.900000
43.020365  -87.352107  53.600000
43.020365  -87.352137  53.600000
